ply
format ascii 1.0
element vertex 1147
property float x
property float y
property float z
property uchar red
property uchar green
property uchar blue
end_header
-29.399708 11.842790 50.405247 31 119 180
-3.434314 11.673011 50.556877 31 119 180
-9.510584 11.668074 50.697006 31 119 180
-14.968537 11.650202 50.859585 31 119 180
-19.343739 11.657675 50.904873 31 119 180
-27.282970 11.727911 50.777554 31 119 180
-2.599975 11.447155 51.321781 31 119 180
-10.163541 11.469221 51.404457 31 119 180
-15.227590 11.488201 51.432766 31 119 180
-22.398685 11.524419 51.422749 31 119 180
-30.120560 11.451026 51.775600 31 119 180
-4.950741 11.305684 51.866291 31 119 180
-10.635368 11.341707 51.855350 31 119 180
-15.963527 11.338358 51.968494 31 119 180
-21.070688 11.300244 52.181664 31 119 180
-28.988823 11.332305 52.177883 31 119 180
-4.785208 11.136372 52.455826 31 119 180
-9.111650 11.070636 52.771442 31 119 180
-15.853209 11.147039 52.627277 31 119 180
-21.429333 11.119466 52.815392 31 119 180
-27.255936 11.177576 52.695202 31 119 180
-2.688585 10.901618 53.224468 31 119 180
-6.696700 10.947927 53.148865 31 119 180
-12.070855 10.933206 53.307861 31 119 180
-17.829920 10.955035 53.332634 31 119 180
-24.480835 10.929807 53.520611 31 119 180
-0.537447 10.724356 53.792336 31 119 180
-4.969494 10.706500 53.954643 31 119 180
-8.814323 10.685343 54.106831 31 119 180
-14.446346 10.705457 54.143890 31 119 180
-20.159870 10.740530 54.115654 31 119 180
-27.191591 10.834678 53.891502 31 119 180
-2.106796 10.498169 54.613976 31 119 180
-5.945845 10.470658 54.797928 31 119 180
-9.717921 10.526817 54.681046 31 119 180
-14.732574 10.532107 54.757141 31 119 180
-20.646709 10.559767 54.754925 31 119 180
-26.171209 10.648619 54.524506 31 119 180
-2.227952 10.322592 55.233707 31 119 180
-7.385718 10.355935 55.225876 31 119 180
-11.239285 10.382414 55.213318 31 119 180
-16.898232 10.424593 55.167934 31 119 180
-24.040180 10.419964 55.290089 31 119 180
-0.708220 10.059001 56.115513 31 119 180
-6.515316 10.167616 55.868000 31 119 180
-10.564805 10.144879 56.026543 31 119 180
-15.176317 10.219146 55.855030 31 119 180
-20.169142 10.252214 55.819374 31 119 180
-25.707388 10.246724 55.915455 31 119 180
-2.176659 9.865019 56.822536 31 119 180
-6.204019 9.967303 56.559235 31 119 180
-13.344184 9.955602 56.737370 31 119 180
-18.015663 9.990280 56.696449 31 119 180
-23.878740 10.039282 56.617146 31 119 180
-30.155605 10.103798 56.469345 31 119 180
-3.428384 9.659532 57.573463 31 119 180
-8.072236 9.734834 57.405426 31 119 180
-12.659245 9.763465 57.399021 31 119 180
-18.244143 9.833221 57.248775 31 119 180
-24.162409 9.868439 57.214581 31 119 180
-29.892145 9.912195 57.139553 31 119 180
-5.341950 9.544066 58.012238 31 119 180
-12.188722 9.612162 57.912258 31 119 180
-16.489237 9.666432 57.801392 31 119 180
-22.968925 9.665709 57.904350 31 119 180
-29.821812 9.745480 57.718960 31 119 180
-3.736603 9.328089 58.736073 31 119 180
-8.997558 9.355911 58.747971 31 119 180
-14.115641 9.425271 58.599129 31 119 180
-18.721828 9.451364 58.587494 31 119 180
-24.620502 9.537697 58.375885 31 119 180
-0.383510 9.029593 59.696732 31 119 180
-4.282964 9.069557 59.645332 31 119 180
-8.445207 9.172812 59.371853 31 119 180
-12.917157 9.161292 59.497742 31 119 180
-17.870548 9.213801 59.400757 31 119 180
-23.711149 9.304021 59.174534 31 119 180
-29.293770 9.391081 58.949821 31 119 180
-3.542351 8.865082 60.344795 31 119 180
-8.759235 8.998102 59.988243 31 119 180
-17.546227 9.025049 60.052097 31 119 180
-23.157072 9.148756 59.708672 31 119 180
-28.148312 9.209064 59.571484 31 119 180
-6.403260 19.585896 23.039433 31 119 180
-10.575800 19.522636 23.346491 31 119 180
-15.252685 19.588278 23.203495 31 119 180
-20.137587 19.519304 23.525227 31 119 180
-25.008348 19.521334 23.587767 31 119 180
-0.975915 19.402742 23.554726 31 119 180
-6.173695 19.420994 23.614059 31 119 180
-10.791343 19.381433 23.845043 31 119 180
-17.841051 19.384296 23.956612 31 119 180
-23.699461 19.336061 24.213917 31 119 180
-30.220879 19.255800 24.581306 31 119 180
-3.853581 19.185104 24.385725 31 119 180
-7.826352 19.151659 24.588326 31 119 180
-13.953159 19.220327 24.463966 31 119 180
-19.680292 19.131102 24.868874 31 119 180
-25.140003 19.091465 25.084108 31 119 180
-2.152807 19.048796 24.818096 31 119 180
-5.997029 18.983934 25.128942 31 119 180
-13.677593 18.974905 25.311071 31 119 180
-19.348070 18.978441 25.393223 31 119 180
-24.512348 18.903744 25.735031 31 119 180
-0.813482 18.785727 25.706020 31 119 180
-4.564884 18.759829 25.880692 31 119 180
-9.526997 18.753674 26.003347 31 119 180
-15.568371 18.771418 26.056192 31 119 180
-21.615860 18.767509 26.165874 31 119 180
-29.517864 18.726345 26.417141 31 119 180
-5.156481 18.572779 26.547850 31 119 180
-10.266776 18.621004 26.479927 31 119 180
-15.273227 18.600237 26.645309 31 119 180
-23.125120 18.624014 26.685751 31 119 180
-29.321972 18.534317 27.087290 31 119 180
-4.100345 18.400217 27.126076 31 119 180
-9.906627 18.404945 27.225750 31 119 180
-13.914929 18.432047 27.210424 31 119 180
-18.733341 18.362740 27.530869 31 119 180
-26.199999 18.380714 27.576536 31 119 180
-2.804997 18.166224 27.907045 31 119 180
-8.106578 18.244289 27.749296 31 119 180
-13.514411 18.267544 27.776131 31 119 180
-18.291983 18.243452 27.938021 31 119 180
-25.703466 18.271454 27.952171 31 119 180
-1.955565 18.015915 28.415697 31 119 180
-7.524476 18.041040 28.450109 31 119 180
-13.471642 18.077477 28.438229 31 119 180
-20.236633 18.028524 28.715216 31 119 180
-25.981009 17.998373 28.907366 31 119 180
-2.978767 17.822744 29.109730 31 119 180
-7.718847 17.815552 29.235853 31 119 180
-14.055597 17.811081 29.373814 31 119 180
-18.706879 17.876501 29.226446 31 119 180
-26.007576 17.841272 29.456560 31 119 180
-2.236159 17.634052 29.754316 31 119 180
-8.052207 17.612276 29.951485 31 119 180
-12.084705 17.622326 29.996330 31 119 180
-16.819534 17.657784 29.959927 31 119 180
-22.140442 17.705429 29.872913 31 119 180
-28.747692 17.712461 29.942665 31 119 180
-3.291143 17.447466 30.424704 31 119 180
-8.884992 17.416542 30.655220 31 119 180
-13.483618 17.487963 30.492760 31 119 180
-19.585993 17.495775 30.564648 31 119 180
-25.529234 17.459080 30.781401 31 119 180
-2.227296 17.190432 31.299931 31 119 180
-6.803762 17.217049 31.307472 31 119 180
-12.489118 17.312918 31.081686 31 119 180
-19.664135 17.345387 31.088863 31 119 180
-25.529692 17.316973 31.275417 31 119 180
-1.409898 16.973501 32.035103 31 119 180
-5.016942 17.063498 31.799652 31 119 180
-9.448628 17.019243 32.046955 31 119 180
-14.439052 17.058479 32.003002 31 119 180
-19.579054 17.066050 32.062595 31 119 180
-25.191710 17.115240 31.969742 31 119 180
-2.313886 16.845264 32.501335 31 119 180
-5.733559 16.811142 32.700447 31 119 180
-9.401985 16.893892 32.484222 31 119 180
-13.479570 16.912851 32.497414 31 119 180
-18.231489 16.953159 32.437317 31 119 180
-27.791616 16.944654 32.604118 31 119 180
-30.171329 19.109673 24.612713 31 119 180
-29.734188 17.813204 29.232002 31 119 180
-29.559961 16.544043 33.748451 31 119 180
-29.083529 14.852202 39.750706 31 119 180
-28.483500 13.009282 46.276993 31 119 180
-28.224072 11.423022 51.885212 31 119 180
-27.776859 9.735979 57.835861 31 119 180
-29.151754 17.806646 29.253721 31 119 180
-28.945480 16.224232 34.883137 31 119 180
-28.426586 14.363907 41.482944 31 119 180
-28.011162 12.488133 48.119804 31 119 180
-27.251560 10.575663 54.872494 31 119 180
-28.843809 18.621866 26.347956 31 119 180
-28.532255 17.349375 30.882669 31 119 180
-28.203741 16.092674 35.347660 31 119 180
-27.569653 14.556143 40.805096 31 119 180
-27.326529 13.226851 45.509186 31 119 180
-27.026333 11.566272 51.376747 31 119 180
-27.972706 19.443544 23.412071 31 119 180
-27.860630 18.444996 26.978115 31 119 180
-27.706396 17.383383 30.763376 31 119 180
-27.378023 15.779452 36.460464 31 119 180
-27.000652 14.292530 41.734730 31 119 180
-26.712412 12.681792 47.438263 31 119 180
-26.322826 11.099537 53.021526 31 119 180
-27.147720 18.471275 26.884468 31 119 180
-26.848667 17.163761 31.542414 31 119 180
-26.711403 15.475114 37.541111 31 119 180
-26.142204 13.716470 43.773819 31 119 180
-25.854115 11.481102 51.679947 31 119 180
-26.788977 19.352446 23.734694 31 119 180
-26.540094 17.947725 28.752184 31 119 180
-26.215336 16.434521 34.133553 31 119 180
-25.709661 14.915233 39.530163 31 119 180
-25.618979 13.164836 45.720581 31 119 180
-25.101938 11.560617 51.395382 31 119 180
-26.116592 19.465649 23.330931 31 119 180
-25.633175 18.166737 27.966320 31 119 180
-25.640781 16.814922 32.778454 31 119 180
-25.183817 14.894954 39.600258 31 119 180
-24.806147 13.371354 44.996986 31 119 180
-24.606190 11.572018 51.355072 31 119 180
-25.422400 19.347851 23.748201 31 119 180
-25.216883 18.238417 27.715904 31 119 180
-24.887266 17.055088 31.926233 31 119 180
-24.611431 15.459126 37.595146 31 119 180
-24.308792 13.771095 43.578671 31 119 180
-24.219608 12.386953 48.473122 31 119 180
-23.766256 10.289942 55.877438 31 119 180
-24.584543 18.771830 25.805449 31 119 180
-24.440302 17.459040 30.489128 31 119 180
-23.927830 15.592793 37.122807 31 119 180
-23.661566 13.651841 44.002960 31 119 180
-23.502352 11.731672 50.787769 31 119 180
-23.105946 9.981832 56.964233 31 119 180
-23.602859 18.324802 27.406113 31 119 180
-23.523308 17.003277 32.113125 31 119 180
-23.265383 15.616164 37.041592 31 119 180
-22.955002 14.028091 42.670448 31 119 180
-22.687887 12.484526 48.125198 31 119 180
-22.473925 10.669621 54.535896 31 119 180
-23.236439 19.155771 24.438223 31 119 180
-22.954929 17.714409 29.576593 31 119 180
-22.705120 16.362827 34.387787 31 119 180
-22.671227 14.525233 40.905262 31 119 180
-22.399492 13.187088 45.640308 31 119 180
-21.911564 10.938740 53.583164 31 119 180
-22.259853 19.026358 24.902473 31 119 180
-22.102766 17.991545 28.588902 31 119 180
-22.032307 16.116655 35.260208 31 119 180
-21.754854 14.045000 42.610119 31 119 180
-21.408937 12.366550 48.546608 31 119 180
-21.471767 10.316857 55.781654 31 119 180
-21.491938 18.691811 26.089520 31 119 180
-21.481359 17.045591 31.956930 31 119 180
-21.368402 15.085557 38.916210 31 119 180
-20.899115 13.180998 45.660866 31 119 180
-20.691597 11.190816 52.702614 31 119 180
-20.847738 18.861790 25.491404 31 119 180
-20.971315 17.591160 30.019297 31 119 180
-20.650215 15.916543 35.969707 31 119 180
-20.457363 14.495142 41.010567 31 119 180
-20.435431 12.692105 47.396938 31 119 180
-20.168610 10.824475 53.993534 31 119 180
-20.449064 19.116383 24.572617 31 119 180
-20.207392 17.841175 29.125875 31 119 180
-20.036226 16.693604 33.211426 31 119 180
-20.027046 15.389177 37.844707 31 119 180
-19.723564 13.751506 43.643398 31 119 180
-19.591726 12.052375 49.655891 31 119 180
-19.561569 9.795240 57.622444 31 119 180
-19.571899 18.461491 26.912825 31 119 180
-19.443829 17.301140 31.051010 31 119 180
-19.328279 15.370227 37.910702 31 119 180
-19.074699 13.797136 43.486820 31 119 180
-19.095425 11.444106 51.802418 31 119 180
-19.067162 19.498566 23.211155 31 119 180
-18.740398 18.532076 26.660049 31 119 180
-18.759680 17.286440 31.102057 31 119 180
-18.565916 16.156174 35.119499 31 119 180
-18.592480 14.184108 42.115955 31 119 180
-18.282473 12.216347 49.075397 31 119 180
-18.266327 10.510669 55.101059 31 119 180
-17.991949 18.905991 25.329111 31 119 180
-18.072626 17.012461 32.078312 31 119 180
-17.949652 15.388638 37.845348 31 119 180
-17.599991 18.131659 28.090704 31 119 180
-17.304699 16.990879 32.153545 31 119 180
-17.423340 15.663729 36.864792 31 119 180
-16.736246 18.813841 25.656364 31 119 180
-16.881828 17.198984 31.413519 31 119 180
-16.528324 15.486537 37.497711 31 119 180
-16.149422 18.490990 26.809801 31 119 180
-16.058264 17.117315 31.705229 31 119 180
-15.834621 15.733022 36.623116 31 119 180
-15.278332 18.139482 28.063482 31 119 180
-15.430769 16.876358 32.559719 31 119 180
-15.351701 15.803616 36.369656 31 119 180
-14.595344 18.882227 25.409376 31 119 180
-14.790853 17.673128 29.724924 31 119 180
-14.812177 16.341637 34.458561 31 119 180
-14.042323 19.347761 23.753561 31 119 180
-14.102289 18.246504 27.684242 31 119 180
-14.068939 16.570665 33.646236 31 119 180
-13.077960 19.425653 23.472139 31 119 180
-13.088057 18.305597 27.471277 31 119 180
-13.272729 16.952932 32.285343 31 119 180
-13.354948 15.550395 37.266678 31 119 180
-12.399348 18.109531 28.168318 31 119 180
-12.714184 16.372335 34.352684 31 119 180
-11.849860 18.333305 27.374495 31 119 180
-11.968156 17.345764 30.888067 31 119 180
-11.845939 16.156008 35.121578 31 119 180
-10.936909 19.186579 24.327917 31 119 180
-11.257989 17.837696 29.137712 31 119 180
-11.247602 16.235800 34.835789 31 119 180
-10.397023 18.838291 25.572447 31 119 180
-10.372222 17.688984 29.670923 31 119 180
-10.505165 16.213757 34.912407 31 119 180
-9.832921 19.099588 24.639540 31 119 180
-9.780660 17.847019 29.105679 31 119 180
-10.047781 16.456753 34.052067 31 119 180
-9.194117 18.464993 26.902472 31 119 180
-9.075023 17.126829 31.666620 31 119 180
-9.305335 15.838041 36.251499 31 119 180
-8.427907 18.392868 27.160652 31 119 180
-8.522931 16.584578 33.600456 31 119 180
-7.501584 18.847206 25.541477 31 119 180
-7.852327 17.423903 30.610573 31 119 180
-7.928820 15.779858 36.454956 31 119 180
-6.754431 18.840351 25.566162 31 119 180
-6.970388 17.068548 31.878412 31 119 180
-7.264557 15.832240 36.272270 31 119 180
-6.279841 18.264349 27.617317 31 119 180
-6.579595 16.851490 32.649940 31 119 180
-6.503601 15.724500 36.655483 31 119 180
-5.613013 18.780703 25.775961 31 119 180
-5.692127 17.594040 30.011999 31 119 180
-5.872530 15.830539 36.279465 31 119 180
-4.938281 18.745024 25.908911 31 119 180
-4.794220 17.859446 29.066099 31 119 180
-5.149986 16.455986 34.058407 31 119 180
-3.970984 19.116295 24.585016 31 119 180
-4.268152 17.365211 30.825235 31 119 180
-4.668109 15.789155 36.424908 31 119 180
-3.420937 18.424543 27.048491 31 119 180
-3.721311 16.622728 33.463818 31 119 180
-2.406866 19.356565 23.723024 31 119 180
-3.060826 17.771191 29.383331 31 119 180
-3.280811 16.654646 33.353249 31 119 180
-1.750996 19.381552 23.634447 31 119 180
-2.250171 17.748638 29.462406 31 119 180
-2.636283 16.169706 35.080708 31 119 180
-1.154592 18.668468 26.185678 31 119 180
-1.359947 17.750057 29.458241 31 119 180
-1.651617 16.666101 33.314430 31 119 180
-0.354806 19.318760 23.861881 31 119 180
-0.999427 17.570421 30.099642 31 119 180
-1.131829 16.420542 34.186340 31 119 180
-19.014551 19.130924 24.422184 31 119 180
-18.888426 18.343670 27.253023 31 119 180
-18.668255 17.359015 30.786898 31 119 180
-18.351809 16.263208 34.699139 31 119 180
-18.286125 15.427829 37.681271 31 119 180
-18.175423 18.587334 26.381838 31 119 180
-18.144577 17.722456 29.484198 31 119 180
-17.949406 16.673273 33.233398 31 119 180
-17.825939 15.618528 37.003063 31 119 180
-17.249384 18.632442 26.219643 31 119 180
-17.115856 17.834864 29.083454 31 119 180
-17.068316 16.556549 33.654163 31 119 180
-16.626648 19.330473 23.707249 31 119 180
-16.633331 18.577133 26.416143 31 119 180
-16.551727 17.543150 30.121178 31 119 180
-16.420444 16.593695 33.517117 31 119 180
-16.271526 15.468526 37.531342 31 119 180
-15.939696 18.542482 26.538355 31 119 180
-15.760758 17.377691 30.713070 31 119 180
-15.744052 16.327908 34.472157 31 119 180
-15.075910 19.288254 23.858044 31 119 180
-15.029510 18.056898 28.281414 31 119 180
-14.930691 17.081352 31.780821 31 119 180
-14.806448 15.579657 37.137211 31 119 180
-14.372481 18.386724 27.100843 31 119 180
-14.218819 17.391130 30.672485 31 119 180
-14.235541 16.262638 34.698887 31 119 180
-13.764839 19.358576 23.597330 31 119 180
-13.569705 18.428074 26.950611 31 119 180
-13.438349 17.376110 30.717279 31 119 180
-13.450600 16.300756 34.565712 31 119 180
-12.761869 19.164686 24.305420 31 119 180
-12.746107 17.849354 29.023743 31 119 180
-12.722915 16.613985 33.445126 31 119 180
-11.932744 19.327072 23.713720 31 119 180
-11.969354 18.204535 27.749336 31 119 180
-12.090773 16.936335 32.292587 31 119 180
-12.027929 15.592469 37.092014 31 119 180
-11.109941 18.815531 25.561857 31 119 180
-11.165969 17.786177 29.252140 31 119 180
-11.196744 16.525097 33.761955 31 119 180
-10.473743 19.435244 23.324205 31 119 180
-10.436764 18.425253 26.958448 31 119 180
-10.593913 17.461441 30.411514 31 119 180
-10.448054 16.193895 34.945141 31 119 180
-9.672245 19.301907 23.805368 31 119 180
-9.816454 17.930729 28.733133 31 119 180
-9.588488 16.685263 33.189152 31 119 180
-8.979311 19.201971 24.171362 31 119 180
-8.853325 18.376865 27.135765 31 119 180
-9.118443 17.223381 31.270147 31 119 180
-8.910608 15.996912 35.645374 31 119 180
-8.145910 19.136011 24.410442 31 119 180
-8.216944 18.029938 28.380169 31 119 180
-8.264951 17.188442 31.392321 31 119 180
-8.399651 15.726078 36.610645 31 119 180
-7.548472 18.801758 25.604156 31 119 180
-7.304994 17.880304 28.917383 31 119 180
-7.651488 16.679241 33.217422 31 119 180
-7.407574 15.362567 37.906143 31 119 180
-6.714146 18.602261 26.328142 31 119 180
-6.805659 17.458939 30.428671 31 119 180
-6.924113 16.592033 33.528564 31 119 180
-5.890717 19.383101 23.514929 31 119 180
-5.868537 18.496843 26.701777 31 119 180
-6.107437 17.316916 30.930071 31 119 180
-6.028003 16.015200 35.581863 31 119 180
-4.965699 19.147476 24.362648 31 119 180
-5.035072 18.252926 27.573677 31 119 180
-5.343128 17.037378 31.933905 31 119 180
-5.463781 15.888464 36.037975 31 119 180
-4.305001 19.078758 24.611158 31 119 180
-4.552584 18.197817 27.774673 31 119 180
-4.495295 17.324520 30.904442 31 119 180
-4.666992 16.042837 35.486198 31 119 180
-3.718684 19.106260 24.514067 31 119 180
-3.602254 17.950853 28.663338 31 119 180
-3.834536 16.360197 34.351524 31 119 180
-2.759415 19.016348 24.834768 31 119 180
-2.983388 18.034540 28.364515 31 119 180
-2.932714 17.124140 31.624464 31 119 180
-3.194426 16.123615 35.198013 31 119 180
-1.959836 19.323400 23.729919 31 119 180
-1.987812 18.542459 26.544348 31 119 180
-2.132645 17.595062 29.941257 31 119 180
-2.383255 16.252975 34.733437 31 119 180
-1.096995 19.196850 24.191114 31 119 180
-1.346121 17.994574 28.504505 31 119 180
-1.558107 16.967134 32.186913 31 119 180
-1.830169 16.090261 35.322048 31 119 180
-0.573852 18.999399 24.904978 31 119 180
-0.739772 17.926199 28.751141 31 119 180
-0.948167 17.051550 31.885933 31 119 180
-0.931487 15.653039 36.875038 31 119 180
-0.340786 9.599585 57.111931 31 119 180
-0.506530 10.835452 52.958694 31 119 180
-0.748693 12.410041 47.626961 31 119 180
-1.131083 9.543039 57.305138 31 119 180
-1.303472 10.679662 53.479557 31 119 180
-1.483356 12.056154 48.818001 31 119 180
-1.970405 9.340529 57.998665 31 119 180
-1.980948 11.105050 52.043411 31 119 180
-2.747853 9.029481 59.033390 31 119 180
-2.637536 10.622703 53.678986 31 119 180
-2.679833 11.921680 49.278072 31 119 180
-3.322007 9.312537 58.081551 31 119 180
-3.562035 10.698346 53.412392 31 119 180
-3.690609 11.661637 50.164486 31 119 180
-3.931869 8.910007 59.434814 31 119 180
-4.176870 10.061205 55.570202 31 119 180
-4.073679 11.344166 51.230568 31 119 180
-4.789375 9.699889 56.775261 31 119 180
-5.073471 11.020701 52.330231 31 119 180
-5.003198 11.956821 49.159607 31 119 180
-5.611697 9.732938 56.672394 31 119 180
-5.634622 10.758097 53.209145 31 119 180
-5.762414 12.007097 48.994747 31 119 180
-6.443052 9.799444 56.443398 31 119 180
-6.428225 11.337197 51.256615 31 119 180
-7.263001 9.161325 58.586311 31 119 180
-7.211846 10.356050 54.564728 31 119 180
-7.072162 11.349267 51.213909 31 119 180
-7.753120 8.948233 59.310455 31 119 180
-7.736837 10.864231 52.849697 31 119 180
-7.924872 11.977941 49.084881 31 119 180
-8.437465 9.551987 57.275551 31 119 180
-8.668396 10.824191 52.977684 31 119 180
-8.662600 12.300672 47.995644 31 119 180
-9.442697 10.092322 55.450748 31 119 180
-9.189285 10.754188 53.225700 31 119 180
-9.404778 11.904641 49.336536 31 119 180
-9.982991 10.071493 55.522522 31 119 180
-9.936418 11.238890 51.587387 31 119 180
-10.985190 9.076349 58.873917 31 119 180
-10.709433 9.915654 56.048962 31 119 180
-10.798940 12.060238 48.808708 31 119 180
-11.676083 9.783730 56.498222 31 119 180
-11.626362 11.051272 52.220844 31 119 180
-12.214190 8.932434 59.358482 31 119 180
-12.252307 10.401512 54.417961 31 119 180
-12.123307 11.069571 52.166332 31 119 180
-12.124945 12.210193 48.294334 31 119 180
-12.979464 9.931320 56.000507 31 119 180
-13.078369 11.280098 51.448124 31 119 180
-13.750470 9.176747 58.532375 31 119 180
-13.599374 10.547756 53.920685 31 119 180
-13.860856 11.551313 50.524002 31 119 180
-14.508783 8.769838 59.919811 31 119 180
-14.420645 9.830475 56.333767 31 119 180
-14.501697 11.398656 51.045895 31 119 180
-15.277003 9.250660 58.288960 31 119 180
-15.155591 10.949816 52.563248 31 119 180
-15.278865 12.211661 48.304646 31 119 180
-16.200310 9.792129 56.471951 31 119 180
-16.027781 10.841177 52.927757 31 119 180
-16.005184 11.713404 49.982830 31 119 180
-16.803423 9.136203 58.689583 31 119 180
-16.913914 10.408365 54.403084 31 119 180
-16.764162 11.570933 50.457741 31 119 180
-17.570984 8.901334 59.467499 31 119 180
-17.629396 10.296372 54.778477 31 119 180
-17.286404 11.658000 50.173344 31 119 180
-18.302441 9.066953 58.925274 31 119 180
-18.147589 10.590017 53.779541 31 119 180
-18.169209 11.609488 50.338566 31 119 180
-28.611607 12.218676 48.281380 31 119 180
-24.510368 12.329069 48.019562 31 119 180
-20.543152 12.335119 48.114296 31 119 180
-26.958658 12.509560 47.329041 31 119 180
-22.506533 12.597889 47.137478 31 119 180
-18.192753 12.605389 47.229332 31 119 180
-26.294918 12.700969 46.682110 31 119 180
-23.013716 12.738793 46.640751 31 119 180
-18.389477 12.775394 46.627483 31 119 180
-26.847715 12.963768 45.742043 31 119 180
-23.509041 12.959435 45.855534 31 119 180
-18.247696 13.001662 45.848427 31 119 180
-26.314632 13.123806 45.195072 31 119 180
-22.650202 13.204610 45.024815 31 119 180
-19.949125 13.168560 45.220581 31 119 180
-26.803751 13.350773 44.395950 31 119 180
-21.289181 13.416125 44.322609 31 119 180
-28.525183 13.555276 43.631405 31 119 180
-24.374233 13.560335 43.733849 31 119 180
-20.021469 13.592647 43.737206 31 119 180
-27.349922 13.782550 42.872654 31 119 180
-22.756910 13.764215 43.068996 31 119 180
-19.362873 13.824900 42.949234 31 119 180
-25.541033 13.987865 42.208439 31 119 180
-21.452824 14.060355 42.070438 31 119 180
-29.843405 14.191693 41.367794 31 119 180
-25.344612 14.179637 41.556461 31 119 180
-21.464176 14.211263 41.544479 31 119 180
-27.080408 14.446054 40.565041 31 119 180
-23.762915 14.378303 40.906933 31 119 180
-19.319618 14.483555 40.652336 31 119 180
-26.490902 14.578733 40.129990 31 119 180
-23.276405 14.676152 39.872608 31 119 180
-18.547850 14.696994 39.930977 31 119 180
-27.746965 14.793871 39.345287 31 119 180
-22.428627 14.842114 39.326492 31 119 180
-30.114218 14.993138 38.571556 31 119 180
-25.354820 15.017401 38.632401 31 119 180
-21.548098 15.021370 38.724197 31 119 180
-28.626289 15.205618 37.870975 31 119 180
-24.320877 15.291125 37.708542 31 119 180
-18.050879 15.267811 37.951687 31 119 180
-24.590141 15.063188 38.330082 31 119 180
-19.671585 14.871288 39.086433 31 119 180
-25.226088 14.878003 38.958054 31 119 180
-29.348049 14.893485 38.806641 31 119 180
-21.996313 14.749245 39.462425 31 119 180
-25.673458 14.711453 39.514889 31 119 180
-18.835835 14.531289 40.274162 31 119 180
-23.235001 14.471859 40.385704 31 119 180
-28.094196 14.489564 40.223488 31 119 180
-21.315943 14.276071 41.103973 31 119 180
-26.734648 14.263026 41.040905 31 119 180
-20.186424 14.181882 41.450638 31 119 180
-24.388933 14.123562 41.573242 31 119 180
-29.186119 14.074347 41.638683 31 119 180
-21.879646 13.932552 42.272167 31 119 180
-26.701050 13.918262 42.223850 31 119 180
-18.644197 13.783915 42.861057 31 119 180
-24.507868 13.756885 42.830341 31 119 180
-18.795053 13.582529 43.546482 31 119 180
-22.796923 13.510138 43.719006 31 119 180
-28.404268 13.493307 43.647083 31 119 180
-20.475479 13.339998 44.355659 31 119 180
-24.865810 13.355659 44.200508 31 119 180
-20.820328 13.157672 44.972214 31 119 180
-26.288160 13.137416 44.923168 31 119 180
-18.052893 13.028808 45.472832 31 119 180
-23.964214 12.934326 45.677078 31 119 180
-29.579723 12.897573 45.677143 31 119 180
-22.787169 12.789023 46.196842 31 119 180
-29.067638 12.712778 46.325928 31 119 180
-24.342531 12.570747 46.915058 31 119 180
-29.558001 12.467875 47.160851 31 119 180
-24.832676 12.334629 47.719822 31 119 180
-14.851027 12.095953 48.161812 31 119 180
-15.665450 9.554642 56.822685 31 119 180
-14.703972 10.869164 52.347015 31 119 180
-15.102923 9.304525 57.677906 31 119 180
-14.258549 10.400649 53.925137 31 119 180
-14.722131 8.677478 59.819405 31 119 180
-13.392817 9.944450 55.485725 31 119 180
-12.335388 11.541890 50.029469 31 119 180
-13.384260 8.583640 60.107918 31 119 180
-12.365278 9.762892 56.085640 31 119 180
-11.359180 11.042864 51.712582 31 119 180
-10.115506 12.087106 48.159672 31 119 180
-10.962061 9.626056 56.543999 31 119 180
-9.850579 11.084576 51.567047 31 119 180
-9.432197 10.316517 54.174156 31 119 180
-8.524513 11.733137 49.346916 31 119 180
-9.323585 8.679989 59.768547 31 119 180
-7.901936 10.597565 53.208241 31 119 180
-8.327525 8.780756 59.414291 31 119 180
-6.148532 12.060765 48.229996 31 119 180
-7.005122 9.394285 57.293060 31 119 180
-5.811675 10.700491 52.856586 31 119 180
-5.127779 11.484515 50.182083 31 119 180
-4.459788 11.405557 50.434288 31 119 180
-5.371736 8.502103 60.323566 31 119 180
-4.327019 9.528926 56.833530 31 119 180
-3.236776 10.599894 53.169621 31 119 180
-2.518644 11.436845 50.329056 31 119 180
-1.863612 12.004759 48.382095 31 119 180
-2.205576 9.047959 58.440765 31 119 180
-1.451773 10.129623 54.753063 31 119 180
-0.472829 11.102299 51.458027 31 119 180
-0.116874 10.650215 52.982292 31 119 180
-0.359530 19.236366 24.064390 31 119 180
-0.607628 18.179852 27.835333 31 119 180
-0.394360 15.303872 38.066849 31 119 180
-1.051120 16.695011 33.125507 31 119 180
-1.296144 18.122318 28.043541 31 119 180
-1.822667 19.437334 23.343534 31 119 180
-1.603028 16.534643 33.699432 31 119 180
-2.017191 17.889948 28.875088 31 119 180
-2.401473 19.166014 24.322599 31 119 180
-2.270105 16.453007 33.991955 31 119 180
-2.490553 17.470284 30.368065 31 119 180
-2.433429 15.334565 37.962719 31 119 180
-3.308170 17.251801 31.151218 31 119 180
-3.916008 18.875650 25.363409 31 119 180
-3.721637 16.363043 34.313934 31 119 180
-3.872725 17.628347 29.810148 31 119 180
-4.561837 19.058756 24.703411 31 119 180
-4.104884 16.424568 34.093063 31 119 180
-4.969774 18.102962 28.114653 31 119 180
-4.737566 15.583181 37.083286 31 119 180
-5.351556 17.282867 31.038277 31 119 180
-5.707696 18.300619 27.412315 31 119 180
-5.289759 15.662490 36.800400 31 119 180
-5.792726 16.961527 32.187729 31 119 180
-6.631985 18.603296 26.337702 31 119 180
-5.989379 16.089573 35.284531 31 119 180
-6.464191 17.115757 31.636345 31 119 180
-7.210505 18.515991 26.649303 31 119 180
-7.682330 19.389900 23.532894 31 119 180
-6.926431 16.405308 34.163322 31 119 180
-7.738047 17.934072 28.728399 31 119 180
-8.346879 19.363722 23.625805 31 119 180
-7.801750 16.510508 33.790382 31 119 180
-8.501808 18.296625 27.436987 31 119 180
-8.831103 19.167557 24.320688 31 119 180
-8.036288 16.210325 34.858986 31 119 180
-8.689531 17.390045 30.668650 31 119 180
-9.675245 18.812418 25.588156 31 119 180
-8.870892 15.854522 36.128662 31 119 180
-9.314917 17.341614 30.838903 31 119 180
-10.094324 18.617418 26.292027 31 119 180
-9.656688 16.151035 35.074413 31 119 180
-10.249319 17.258631 31.136063 31 119 180
-10.831671 18.524799 26.622955 31 119 180
-10.145536 15.727717 36.579830 31 119 180
-10.822847 17.337214 30.855497 31 119 180
-11.778269 19.103718 24.556330 31 119 180
-11.088673 16.809351 32.739349 31 119 180
-11.881362 18.203472 27.774397 31 119 180
-12.653944 19.167585 24.326809 31 119 180
-11.630035 16.169428 35.013401 31 119 180
-12.777209 17.997898 28.505245 31 119 180
-13.482277 19.344742 23.695642 31 119 180
-12.721214 17.244669 31.188314 31 119 180
-13.710614 18.606897 26.335072 31 119 180
-12.952481 16.091524 35.294121 31 119 180
-13.734248 17.526411 30.185797 31 119 180
-14.513301 18.858568 25.442608 31 119 180
-13.286253 15.934404 35.849957 31 119 180
-14.283832 17.453943 30.446316 31 119 180
-15.152486 18.788956 25.692949 31 119 180
-14.464997 16.404375 34.184299 31 119 180
-15.694146 18.465019 26.844906 31 119 180
-14.854467 15.827752 36.230362 31 119 180
-15.672446 17.387535 30.687790 31 119 180
-16.675320 18.989111 24.978500 31 119 180
-15.563695 16.294060 34.578175 31 119 180
-16.745453 17.804300 29.207163 31 119 180
-17.378683 18.857950 25.448759 31 119 180
-16.511040 16.271711 34.657478 31 119 180
-17.598503 18.073124 28.249952 31 119 180
-2.663953 18.967979 23.852198 31 119 180
-0.523476 18.695782 24.875486 31 119 180
-26.261299 18.771404 24.498613 31 119 180
-4.110957 18.389826 25.806414 31 119 180
-2.113294 18.095531 26.921091 31 119 180
-29.972889 18.187157 26.658634 31 119 180
-25.140524 17.854502 27.666870 31 119 180
-4.814346 17.509880 28.874390 31 119 180
-28.520033 17.647200 28.482767 31 119 180
-0.774905 16.984386 30.842316 31 119 180
-25.862581 17.117079 30.238117 31 119 180
-5.606721 16.649235 31.828667 31 119 180
-1.042460 16.416986 32.803715 31 119 180
-28.533426 16.529293 32.381462 31 119 180
-30.256807 16.298384 33.254089 31 119 180
-24.972113 15.451662 36.029091 31 119 180
-23.897406 15.170178 36.960781 31 119 180
-26.257248 14.616413 38.988472 31 119 180
-30.019621 14.318691 40.148205 31 119 180
-26.030712 13.751087 41.974545 31 119 180
-29.760786 13.561125 42.771782 31 119 180
-25.761564 12.645458 45.836998 31 119 180
-1.896285 12.032863 48.036938 31 119 180
-27.603518 12.114840 47.747910 31 119 180
-29.552019 11.905402 48.532539 31 119 180
-7.045869 11.386346 50.123184 31 119 180
-27.942053 11.566168 49.669579 31 119 180
-2.686126 11.247652 50.772137 31 119 180
-28.139336 11.331427 50.495049 31 119 180
-5.137730 10.902094 51.873909 31 119 180
-1.788419 10.646564 52.873280 31 119 180
-22.727785 10.674853 52.583904 31 119 180
-2.755244 10.359028 53.854053 31 119 180
-25.003773 10.475950 53.373569 31 119 180
-28.935856 10.231300 54.341022 31 119 180
-9.192806 9.787608 55.647701 31 119 180
-22.029467 9.594245 56.322170 31 119 180
-5.031031 9.229142 57.725079 31 119 180
-2.196910 9.013847 58.557579 31 119 180
-25.727760 9.086229 58.222710 31 119 180
-2.817173 8.688700 59.675816 31 119 180
-26.633884 8.835347 59.144428 31 119 180
-7.773445 -9.506295 37.855221 31 119 180
-2.347515 -8.730117 36.311615 31 119 180
-16.328850 -9.362825 37.515686 31 119 180
-10.506739 -8.661061 36.006252 31 119 180
-4.914820 -8.225344 34.518208 31 119 180
-16.725960 -8.400566 35.057438 31 119 180
-10.690939 -8.086238 33.359695 31 119 180
-4.936215 -8.050891 31.666685 31 119 180
-0.444291 -8.165949 30.600925 31 119 180
-11.375731 -8.179603 30.759359 31 119 180
-5.430578 -8.578400 29.053040 31 119 180
-15.821802 -8.455544 29.559181 31 119 180
-4.732039 -25.765781 23.813370 31 119 180
-9.562034 -24.706739 22.992414 31 119 180
-4.719736 -24.941574 23.149233 31 119 180
-11.451708 -23.735878 22.408394 31 119 180
-6.835729 -24.005451 22.544262 31 119 180
-1.740919 -24.224585 22.661182 31 119 180
-8.156456 -23.166578 22.112089 31 119 180
-3.598028 -23.479340 22.246655 31 119 180
-10.596672 -22.331312 21.771671 31 119 180
-5.694345 -22.526337 21.828453 31 119 180
-12.215276 -21.561071 21.526653 31 119 180
-6.908301 -21.901423 21.608088 31 119 180
-2.168378 -21.870281 21.583878 31 119 180
-8.197412 -21.003454 21.370798 31 119 180
-2.853432 -21.350374 21.430988 31 119 180
-9.244500 -20.394341 21.251940 31 119 180
-3.389152 -20.516315 21.251223 31 119 180
-6.313856 -19.664171 21.144176 31 119 180
-1.820112 -19.832001 21.142462 31 119 180
-9.000974 -19.264942 21.123230 31 119 180
-4.208662 -19.397299 21.109247 31 119 180
-5.446910 -9.448446 37.434841 31 119 180
-2.070321 -9.688439 37.899765 31 119 180
-0.875974 -9.208662 37.529526 31 119 180
-0.487643 -8.916250 36.939571 31 119 180
-3.612050 -9.229446 37.550350 31 119 180
-3.466349 -9.152899 37.412083 31 119 180
-1.935194 -8.774913 36.603886 31 119 180
-5.874044 -9.305859 37.679928 31 119 180
-5.339943 -9.147589 37.386677 31 119 180
-2.959431 -8.770919 36.590008 31 119 180
-7.292490 -9.261625 37.592999 31 119 180
-5.249807 -8.797898 36.634701 31 119 180
-1.251603 -8.401319 35.575161 31 119 180
-7.230582 -8.947510 36.956219 31 119 180
-2.378796 -8.371249 35.466797 31 119 180
-8.214647 -8.978095 37.013912 31 119 180
-2.118606 -8.306300 35.243706 31 119 180
-6.143921 -8.646811 36.250980 31 119 180
-10.976201 -9.191153 37.423336 31 119 180
-1.893925 -8.269708 35.112743 31 119 180
-5.905265 -8.518166 35.896587 31 119 180
-11.930720 -9.238468 37.505188 31 119 180
-2.069848 -8.198207 34.819790 31 119 180
-7.930461 -8.632056 36.196224 31 119 180
-12.846660 -9.116465 37.254314 31 119 180
-2.149514 -8.112309 34.407658 31 119 180
-6.222585 -8.374198 35.440662 31 119 180
-10.505465 -8.842773 36.698135 31 119 180
-2.521721 -8.117012 34.428707 31 119 180
-7.236284 -8.411087 35.554764 31 119 180
-13.064441 -9.001927 37.018742 31 119 180
-1.317770 -8.026682 33.930191 31 119 180
-5.078437 -8.214456 34.860538 31 119 180
-9.789457 -8.504875 35.814396 31 119 180
-17.552698 -9.335369 37.620296 31 119 180
-6.110372 -8.172989 34.654644 31 119 180
-11.064241 -8.551465 35.932716 31 119 180
-15.001243 -8.985018 36.958290 31 119 180
-3.552227 -8.027313 33.886715 31 119 180
-8.884944 -8.311767 35.187080 31 119 180
-14.731649 -8.828678 36.610683 31 119 180
-2.093007 -7.947872 33.224819 31 119 180
-6.776047 -8.093734 34.245216 31 119 180
-12.609197 -8.510248 35.791962 31 119 180
-1.490153 -7.915724 32.689011 31 119 180
-5.901356 -8.053882 34.028645 31 119 180
-10.824969 -8.357278 35.335953 31 119 180
-17.784847 -9.010126 36.980412 31 119 180
-6.525156 -8.008686 33.695168 31 119 180
-10.762210 -8.255730 34.944458 31 119 180
-16.028143 -8.722987 36.346630 31 119 180
-2.730372 -7.913303 32.533978 31 119 180
-5.978024 -7.984793 33.518276 31 119 180
-9.722743 -8.131339 34.399094 31 119 180
-15.464674 -8.569662 35.935276 31 119 180
-3.329537 -7.913039 32.572231 31 119 180
-6.954633 -7.969313 33.335918 31 119 180
-11.814715 -8.177230 34.577728 31 119 180
-16.991257 -8.603373 36.002926 31 119 180
-3.382824 -7.911326 32.212170 31 119 180
-7.495565 -7.980113 33.458794 31 119 180
-11.436542 -8.113214 34.260124 31 119 180
-16.211910 -8.410215 35.420601 31 119 180
-3.239129 -7.923110 31.778297 31 119 180
-7.031995 -7.936718 32.878662 31 119 180
-11.087299 -8.062420 33.969551 31 119 180
-17.942091 -8.508806 35.715122 31 119 180
-4.551534 -7.915867 32.056320 31 119 180
-10.893528 -8.024492 33.730820 31 119 180
-0.672663 -7.989825 30.899796 31 119 180
-5.327928 -7.918114 31.999065 31 119 180
-9.988911 -7.955687 33.035480 31 119 180
-16.322023 -8.203077 34.609730 31 119 180
-3.118067 -7.959457 31.207338 31 119 180
-8.463055 -7.925595 32.349857 31 119 180
-13.765521 -8.047665 33.790428 31 119 180
-0.804713 -8.112408 30.162159 31 119 180
-5.752581 -7.936986 31.577906 31 119 180
-10.850078 -7.947311 32.917690 31 119 180
-16.492563 -8.121732 34.200535 31 119 180
-2.375449 -8.066179 30.416794 31 119 180
-7.311836 -7.942521 31.575617 31 119 180
-11.321094 -7.940233 32.779755 31 119 180
-17.089085 -8.112531 34.127666 31 119 180
-3.388091 -8.069796 30.404531 31 119 180
-7.574128 -7.970022 31.253305 31 119 180
-13.567170 -7.955562 32.817604 31 119 180
-1.912161 -8.193169 29.781965 31 119 180
-6.892557 -7.992935 30.993616 31 119 180
-10.363340 -7.939444 31.833775 31 119 180
-15.579575 -7.984279 33.160603 31 119 180
-1.811968 -8.281211 29.426174 31 119 180
-9.464153 -7.984101 31.163801 31 119 180
-14.763386 -7.948775 32.441841 31 119 180
-1.500328 -8.344653 29.186291 31 119 180
-4.846600 -8.138010 30.054899 31 119 180
-10.660096 -7.969069 31.370403 31 119 180
-16.000952 -7.954097 32.460697 31 119 180
-2.688517 -8.323885 29.263428 31 119 180
-6.636103 -8.114210 30.198683 31 119 180
-11.484764 -7.990588 31.173830 31 119 180
-15.502577 -7.948165 32.324547 31 119 180
-1.645178 -8.461110 28.804224 31 119 180
-7.610972 -8.152114 30.025873 31 119 180
-12.807246 -7.973943 31.369915 31 119 180
-1.203122 -8.621516 28.358458 31 119 180
-7.078377 -8.279799 29.482861 31 119 180
-10.811599 -8.079220 30.479532 31 119 180
-16.858271 -7.952741 32.108513 31 119 180
-3.605156 -8.617354 28.388779 31 119 180
-10.331270 -8.154632 30.065149 31 119 180
-17.657726 -7.966726 31.842836 31 119 180
-4.037376 -8.658556 28.281458 31 119 180
-8.137399 -8.328006 29.311651 31 119 180
-13.784568 -8.045523 30.761133 31 119 180
-1.369972 -8.955726 27.567539 31 119 180
-4.949861 -8.668815 28.260761 31 119 180
-10.647196 -8.295022 29.462856 31 119 180
-15.932046 -8.054147 30.776096 31 119 180
-2.495538 -8.947672 27.590366 31 119 180
-6.724858 -8.571335 28.527958 31 119 180
-12.431910 -8.233301 29.732616 31 119 180
-16.928110 -8.078490 30.632156 31 119 180
-4.217078 -8.840484 27.827688 31 119 180
-8.975264 -8.482771 28.798862 31 119 180
-13.055608 -8.240093 29.707012 31 119 180
-18.216259 -8.069551 30.719500 31 119 180
-4.973636 -8.949799 27.597128 31 119 180
-9.703766 -8.566392 28.570208 31 119 180
-14.461702 -8.254245 29.667799 31 119 180
-1.109006 -9.515316 26.520155 31 119 180
-6.513290 -8.908682 27.691492 31 119 180
-10.787794 -8.648569 28.360811 31 119 180
-15.646518 -8.280110 29.588360 31 119 180
-2.755439 -9.358826 26.781944 31 119 180
-7.254017 -9.011661 27.480120 31 119 180
-12.324406 -8.560362 28.611370 31 119 180
-0.259182 -9.843427 26.005472 31 119 180
-5.396741 -9.252959 26.990978 31 119 180
-10.885743 -8.757918 28.072884 31 119 180
-16.584232 -8.413614 29.116070 31 119 180
-4.087154 -9.538629 26.487770 31 119 180
-8.630575 -9.174601 27.166098 31 119 180
-13.541351 -8.673936 28.312927 31 119 180
-1.472208 -10.109967 25.638195 31 119 180
-8.712620 -9.319570 26.896715 31 119 180
-13.727852 -8.790239 28.023172 31 119 180
-1.577568 -10.255521 25.446432 31 119 180
-5.925605 -9.637677 26.341112 31 119 180
-11.240770 -9.143999 27.241451 31 119 180
-15.977677 -8.735030 28.184858 31 119 180
-2.669480 -10.103177 25.640919 31 119 180
-8.855574 -9.563959 26.479900 31 119 180
-15.154239 -8.999990 27.570610 31 119 180
-3.436395 -10.187049 25.537203 31 119 180
-7.451179 -9.757615 26.160616 31 119 180
-13.079335 -9.278895 27.001848 31 119 180
-0.807198 -10.853814 24.738646 31 119 180
-5.150119 -10.230856 25.488733 31 119 180
-9.955644 -9.696262 26.274248 31 119 180
-16.004608 -9.190192 27.192556 31 119 180
-3.150510 -10.692467 24.926725 31 119 180
-7.600363 -10.194961 25.551714 31 119 180
-13.186493 -9.560327 26.511993 31 119 180
-17.670916 -9.179111 27.227802 31 119 180
-6.978112 -10.327466 25.375696 31 119 180
-12.332230 -9.784026 26.154932 31 119 180
-16.321957 -9.419993 26.772913 31 119 180
-1.940870 -11.329459 24.259897 31 119 180
-6.114015 -10.707864 24.920891 31 119 180
-10.644797 -10.115249 25.673952 31 119 180
-15.120806 -9.759306 26.214561 31 119 180
-1.687278 -11.508529 24.089867 31 119 180
-5.487528 -10.870447 24.736666 31 119 180
-10.031485 -10.347464 25.365850 31 119 180
-16.195223 -9.833003 26.109289 31 119 180
-2.533345 -11.541668 24.062336 31 119 180
-7.127470 -10.915542 24.696062 31 119 180
-10.634836 -10.617657 25.050104 31 119 180
-15.430014 -9.923658 25.967974 31 119 180
-3.033798 -11.655878 23.959667 31 119 180
-7.032663 -11.076828 24.525843 31 119 180
-12.063327 -10.470304 25.222731 31 119 180
-17.135048 -10.005979 25.866575 31 119 180
-4.106256 -11.660764 23.956266 31 119 180
-10.469475 -10.825397 24.805201 31 119 180
-15.930528 -10.303635 25.459570 31 119 180
-3.129030 -12.068424 23.615042 31 119 180
-7.783593 -11.480077 24.141071 31 119 180
-12.819606 -10.817148 24.830887 31 119 180
-17.567024 -10.229689 25.559271 31 119 180
-3.620205 -12.234437 23.485846 31 119 180
-7.822428 -11.616503 24.013803 31 119 180
-11.493393 -11.132376 24.490889 31 119 180
-17.688332 -10.497420 25.228741 31 119 180
-3.556998 -12.438717 23.331802 31 119 180
-9.091600 -11.759650 23.899311 31 119 180
-13.605725 -11.177671 24.458902 31 119 180
-0.563124 -13.112358 22.862204 31 119 180
-5.335721 -12.426270 23.347664 31 119 180
-11.526932 -11.771042 23.901846 31 119 180
-17.317266 -11.059490 24.602392 31 119 180
-3.133035 -12.815438 23.061165 31 119 180
-7.478324 -12.311111 23.440186 31 119 180
-11.728780 -11.978670 23.728964 31 119 180
-17.149879 -11.124775 24.528795 31 119 180
-6.816070 -12.666623 23.180346 31 119 180
-11.623435 -12.236963 23.521555 31 119 180
-15.839442 -11.634806 24.042681 31 119 180
-2.358490 -13.463140 22.656227 31 119 180
-7.612706 -12.869645 23.050575 31 119 180
-14.632163 -11.898707 23.803396 31 119 180
-1.571445 -13.765235 22.485134 31 119 180
-5.693757 -13.237343 22.802876 31 119 180
-10.748994 -12.721469 23.163408 31 119 180
-16.285255 -12.152397 23.611929 31 119 180
-3.696227 -13.736956 22.507990 31 119 180
-8.093967 -13.401255 22.722040 31 119 180
-13.027683 -12.672485 23.207815 31 119 180
-0.747150 -14.386369 22.174181 31 119 180
-5.831916 -13.833384 22.471657 31 119 180
-10.238295 -13.347063 22.763596 31 119 180
-15.562424 -12.746372 23.171265 31 119 180
-2.138295 -14.633361 22.074541 31 119 180
-8.732900 -13.560020 22.627604 31 119 180
-14.633430 -12.928241 23.041039 31 119 180
-1.433989 -14.772046 22.008739 31 119 180
-5.952532 -14.171463 22.296108 31 119 180
-11.385937 -13.517751 22.664085 31 119 180
-17.233461 -12.993267 23.013508 31 119 180
-3.253039 -14.729710 22.032503 31 119 180
-8.273802 -14.404255 22.204872 31 119 180
-13.106696 -13.721757 22.562675 31 119 180
-1.218567 -15.241334 21.826704 31 119 180
-4.938062 -14.831746 21.999918 31 119 180
-9.432146 -14.348710 22.231606 31 119 180
-0.670703 -15.885001 21.621614 31 119 180
-5.845321 -15.034717 21.926950 31 119 180
-10.504636 -14.625623 22.116823 31 119 180
-5.454822 -15.463352 21.774681 31 119 180
-2.098174 -28.290680 26.421480 31 119 180
-6.437879 -28.526039 26.852926 31 119 180
-12.776298 -28.932159 27.718119 31 119 180
-17.604687 -29.260035 28.599115 31 119 180
-3.553401 -28.544071 26.867733 31 119 180
-8.607441 -28.813702 27.426567 31 119 180
-14.438444 -29.179682 28.339516 31 119 180
-3.356861 -28.694265 27.146666 31 119 180
-9.371361 -28.976774 27.786366 31 119 180
-13.813326 -29.296181 28.660156 31 119 180
-1.007581 -28.608587 26.965704 31 119 180
-6.502404 -29.033630 27.894415 31 119 180
-11.188122 -29.168648 28.266846 31 119 180
-18.031305 -29.524918 29.472008 31 119 180
-6.040905 -29.070736 27.979431 31 119 180
-12.612340 -29.424072 29.039934 31 119 180
-0.566598 -28.792589 27.317488 31 119 180
-7.336669 -29.184315 28.268789 31 119 180
-12.262872 -29.498268 29.292410 31 119 180
-17.831079 -29.654875 30.025930 31 119 180
-3.993925 -29.139223 28.126720 31 119 180
-9.721740 -29.412895 28.958031 31 119 180
-15.477976 -29.652491 29.974628 31 119 180
-2.746898 -29.153288 28.149376 31 119 180
-7.935945 -29.408730 28.920712 31 119 180
-13.387215 -29.622786 29.786180 31 119 180
-1.250794 -29.204241 28.268967 31 119 180
-4.825991 -29.372717 28.777683 31 119 180
-9.091854 -29.539450 29.385763 31 119 180
-13.559587 -29.702164 30.176720 31 119 180
-18.299261 -29.828514 31.218300 31 119 180
-3.959772 -29.373800 28.764269 31 119 180
-8.827195 -29.600155 29.619019 31 119 180
-15.336837 -29.798874 30.833338 31 119 180
-2.910398 -29.447788 28.996313 31 119 180
-9.162194 -29.695681 30.065336 31 119 180
-13.604725 -29.823269 30.992817 31 119 180
-1.493552 -29.476698 29.078596 31 119 180
-6.341816 -29.649654 29.797789 31 119 180
-11.209493 -29.823393 30.916159 31 119 180
-18.251133 -29.875296 32.092762 31 119 180
-3.925506 -29.641911 29.735992 31 119 180
-9.439307 -29.792406 30.618507 31 119 180
-14.431996 -29.872473 31.561255 31 119 180
-1.693426 -29.574566 29.423204 31 119 180
-5.338100 -29.740652 30.232714 31 119 180
-10.707941 -29.867620 31.340050 31 119 180
-16.089037 -29.883497 32.384953 31 119 180
-4.790322 -29.761087 30.330927 31 119 180
-9.583659 -29.864611 31.223652 31 119 180
-14.406953 -29.891834 32.238098 31 119 180
-1.360442 -29.691454 29.919119 31 119 180
-5.509042 -29.854271 31.012474 31 119 180
-10.113214 -29.899124 31.837790 31 119 180
-16.190390 -29.854427 33.038525 31 119 180
-3.133778 -29.791241 30.473738 31 119 180
-7.760944 -29.886423 31.397739 31 119 180
-14.061680 -29.882654 32.729092 31 119 180
-0.668693 -29.761351 30.265654 31 119 180
-5.649406 -29.886442 31.338642 31 119 180
-10.545587 -29.902685 32.449558 31 119 180
-16.118780 -29.824400 33.412193 31 119 180
-5.280953 -29.910000 31.739185 31 119 180
-9.761902 -29.897684 32.687950 31 119 180
-16.873659 -29.753527 33.919876 31 119 180
-5.908040 -29.918562 32.039806 31 119 180
-9.563470 -29.886061 32.919453 31 119 180
-14.742972 -29.759010 33.923275 31 119 180
-2.740456 -29.907866 31.519173 31 119 180
-8.461313 -29.893833 32.865929 31 119 180
-15.300352 -29.736303 34.083199 31 119 180
-3.732445 -29.925798 31.983484 31 119 180
-7.965558 -29.884939 33.030724 31 119 180
-11.643213 -29.782669 33.845646 31 119 180
-16.477575 -29.618553 34.655674 31 119 180
-2.302732 -29.928156 32.051979 31 119 180
-7.066536 -29.885715 33.069504 31 119 180
-10.792190 -29.805206 33.742332 31 119 180
-16.496468 -29.491747 35.147621 31 119 180
-3.425486 -29.913328 32.752064 31 119 180
-7.618108 -29.826591 33.620640 31 119 180
-11.752890 -29.683552 34.415264 31 119 180
-16.439732 -29.369392 35.557487 31 119 180
-3.859144 -29.908432 32.868317 31 119 180
-8.969638 -29.753090 34.093601 31 119 180
-13.491391 -29.495110 35.174423 31 119 180
-2.285017 -29.911236 32.856628 31 119 180
-5.601717 -29.809578 33.785587 31 119 180
-12.069343 -29.497009 35.187084 31 119 180
-16.951357 -29.242519 35.945107 31 119 180
-2.956737 -29.858212 33.453583 31 119 180
-9.817275 -29.591331 34.859379 31 119 180
-14.831130 -29.227100 35.999947 31 119 180
-1.285785 -29.882126 33.256248 31 119 180
-5.749573 -29.755077 34.144783 31 119 180
-11.916570 -29.419384 35.469433 31 119 180
-17.686447 -28.823368 36.938122 31 119 180
-4.871537 -29.701332 34.429607 31 119 180
-9.058247 -29.476353 35.298733 31 119 180
-13.966184 -29.052567 36.457039 31 119 180
-1.183335 -29.806120 33.877842 31 119 180
-6.306454 -29.579393 34.949810 31 119 180
-9.653555 -29.408464 35.530560 31 119 180
-15.325274 -28.927811 36.743690 31 119 180
-2.114173 -29.771921 34.095638 31 119 180
-7.188602 -29.475176 35.328140 31 119 180
-13.320873 -28.905230 36.804523 31 119 180
-2.096477 -29.708986 34.426338 31 119 180
-6.191306 -29.494390 35.278313 31 119 180
-12.792050 -28.834599 36.960308 31 119 180
-0.612089 -29.725012 34.354118 31 119 180
-6.831204 -29.384436 35.640160 31 119 180
-10.979162 -28.991917 36.636833 31 119 180
-16.032442 -28.469507 37.650806 31 119 180
-3.303398 -29.512009 35.234112 31 119 180
-8.745902 -29.095678 36.408840 31 119 180
-13.263861 -28.628405 37.377914 31 119 180
-0.643786 -29.571754 35.022655 31 119 180
-6.150760 -29.194994 36.172253 31 119 180
-10.846924 -28.696733 37.258831 31 119 180
-16.236347 -28.083860 38.279697 31 119 180
-2.946736 -29.380459 35.668072 31 119 180
-7.977337 -28.853401 36.959675 31 119 180
-13.465960 -28.257795 38.023056 31 119 180
-2.052898 -29.398434 35.621635 31 119 180
-5.542328 -28.990822 36.673653 31 119 180
-11.521622 -28.357796 37.871532 31 119 180
-17.487661 -27.442093 39.148342 31 119 180
-5.156379 -28.913078 36.849392 31 119 180
-9.853624 -28.435007 37.751030 31 119 180
-16.237673 -27.492636 39.095119 31 119 180
-2.725653 -29.141535 36.334648 31 119 180
-6.499629 -28.641336 37.394798 31 119 180
-11.356868 -28.188368 38.157200 31 119 180
-17.048983 -27.271038 39.364353 31 119 180
-4.649699 -28.787371 37.119850 31 119 180
-9.142454 -28.305870 37.978924 31 119 180
-16.085703 -27.278183 39.363865 31 119 180
-3.713620 -28.736494 37.225143 31 119 180
-7.629436 -28.391146 37.848213 31 119 180
-12.510877 -27.718529 38.835274 31 119 180
-16.323584 -27.018669 39.657227 31 119 180
-2.722742 -28.764965 37.173836 31 119 180
-7.676024 -28.212833 38.138458 31 119 180
-12.676647 -27.415903 39.217381 31 119 180
-18.138096 -26.378029 40.293091 31 119 180
